# .PCD v0.7 - Point Cloud Data file format
VERSION 0.7
FIELDS x y z rgb
SIZE 4 4 4 4
TYPE F F F F
COUNT 1 1 1 1
WIDTH 1041
HEIGHT 1
VIEWPOINT 0 0 0 1 0 0 0
POINTS 1041
DATA ascii
0.26019561 -1.1542643 1.4201291 1.8070335e-38
0.25408161 -1.1478766 1.4122701 1.8346199e-38
0.24801962 -1.1414889 1.404411 2.1015904e-38
0.24132873 -1.1319073 1.3926225 1.7604665e-38
0.23631892 -1.1299909 1.3902647 1.7234441e-38
0.23132472 -1.1280746 1.3879069 1.677346e-38
0.22621776 -1.1255195 1.3847635 1.6680543e-38
0.22125736 -1.1236032 1.3824056 1.6588703e-38
0.21643578 -1.1223257 1.3808339 1.6127725e-38
0.21162459 -1.1210482 1.3792621 1.5758222e-38
0.20682381 -1.1197706 1.3776903 1.5389437e-38
0.2021488 -1.1191318 1.3769044 1.511285e-38
0.19747899 -1.1184931 1.3761184 1.4836263e-38
0.19292459 -1.1184931 1.3761184 1.4928459e-38
0.18837015 -1.1184931 1.3761184 1.5297241e-38
0.18381575 -1.1184931 1.3761184 1.5297241e-38
0.17936371 -1.1191318 1.3769044 1.5389437e-38
0.1748067 -1.1191318 1.3769044 1.5389437e-38
0.17044403 -1.1204094 1.3784761 1.5389437e-38
0.16607095 -1.1216869 1.3800479 1.5573828e-38
0.16168748 -1.1229645 1.3816198 1.5666026e-38
0.15720421 -1.1236032 1.3824056 1.5481635e-38
0.15280253 -1.1248808 1.3839775 1.483663e-38
0.14839046 -1.1261584 1.3855493 1.3822478e-38
0.14396797 -1.1274359 1.3871211 5.6156433e-39
0.13953505 -1.1287134 1.3886929 1.2532108e-38
0.13516814 -1.1306298 1.3910507 1.3085632e-38
0.13071182 -1.1319073 1.3926225 1.3638087e-38
0.12624511 -1.1331848 1.3941941 1.3822478e-38
0.12169944 -1.1338236 1.3949802 1.391503e-38
0.11721452 -1.1351012 1.396552 1.4190896e-38
0.11259248 -1.1351012 1.396552 1.4283092e-38
0.1080312 -1.1357399 1.3973379 1.4283092e-38
0.10340655 -1.1357399 1.3973379 1.4283092e-38
0.098726355 -1.1351012 1.396552 1.4651874e-38
0.094104305 -1.1351012 1.396552 1.4467483e-38
0.089431904 -1.1344624 1.3957661 1.4467483e-38
0.084764712 -1.1338236 1.3949802 1.446748e-38
0.08014787 -1.1338236 1.3949802 1.4651872e-38
0.075488478 -1.1331848 1.3941941 1.4467483e-38
0.070874237 -1.1331848 1.3941941 1.4375288e-38
0.066297352 -1.1338236 1.3949802 1.4467483e-38
0.061645754 -1.1331848 1.3941941 1.4375288e-38
0.057095811 -1.1344624 1.3957661 1.4375288e-38
0.052476373 -1.1344624 1.3957661 1.4190896e-38
0.047883876 -1.1351012 1.396552 1.4098701e-38
0.043310523 -1.1363786 1.3981237 1.2993073e-38
0.038705021 -1.1370175 1.3989097 1.3546247e-38
0.034113463 -1.1382951 1.4004815 1.3546247e-38
0.029511498 -1.1395725 1.4020532 1.3454052e-38
0.024899133 -1.1408502 1.4036251 1.363844e-38
0.02026502 -1.1414889 1.404411 1.3546247e-38
0.015625704 -1.1421278 1.4051969 1.3454052e-38
0.010987327 -1.1434052 1.4067688 1.3546247e-38
0.0063385447 -1.1446828 1.4083405 1.3177462e-38
0.0016784222 -1.1453216 1.4091264 1.3269657e-38
0.2993958 -1.2224374 1.4962394 1.8070335e-38
0.2902669 -1.2051297 1.4750551 1.8162531e-38
0.2806713 -1.1852579 1.4507325 1.8162531e-38
0.27481759 -1.1807708 1.4452403 1.8162531e-38
0.26856053 -1.1743605 1.4373941 1.8162531e-38
0.25990763 -1.1570528 1.4162098 1.8070335e-38
0.25422299 -1.1525656 1.4107176 1.8437676e-38
0.24774204 -1.1442322 1.4005178 2.073932e-38
0.24146493 -1.1365399 1.3911026 1.7604668e-38
0.23645252 -1.1346169 1.3887488 1.7234441e-38
0.2314557 -1.1326938 1.3863949 1.6681267e-38
0.22647452 -1.1307707 1.3840411 1.6680545e-38
0.22150892 -1.1288475 1.3816873 1.6772018e-38
0.21668214 -1.1275655 1.380118 1.6218844e-38
0.21174516 -1.1256424 1.3777642 1.5758222e-38
0.20705977 -1.1250014 1.3769797 1.5297241e-38
0.20226417 -1.1237195 1.3754104 1.4928459e-38
0.19770457 -1.1237195 1.3754104 1.4836263e-38
0.19314495 -1.1237195 1.3754104 1.4928459e-38
0.18858533 -1.1237195 1.3754104 1.511285e-38
0.1840257 -1.1237195 1.3754104 1.5297241e-38
0.17956847 -1.1243603 1.3761951 1.5481632e-38
0.17510603 -1.1250014 1.3769797 1.5389437e-38
0.17063837 -1.1256424 1.3777642 1.5389437e-38
0.16626011 -1.1269245 1.3793335 1.5481632e-38
0.16187143 -1.1282065 1.3809026 1.5666024e-38
0.15747233 -1.1294886 1.3824719 1.5481632e-38
0.15297608 -1.1301297 1.3832566 1.4836986e-38
0.1485588 -1.1314117 1.3848257 1.2347704e-38
0.14413111 -1.1326938 1.3863949 5.8925862e-39
0.13969299 -1.1339757 1.3879641 1.2532464e-38
0.13524449 -1.1352577 1.3895333 1.2901241e-38
0.1307856 -1.1365399 1.3911026 1.3638087e-38
0.12624511 -1.1371809 1.3918871 1.3822478e-38
0.12176801 -1.138463 1.3934565 1.3822834e-38
0.11721452 -1.139104 1.394241 1.391503e-38
0.11265585 -1.139745 1.3950256 1.4099421e-38
0.1080312 -1.139745 1.3950256 1.4099421e-38
0.10340655 -1.139745 1.3950256 1.4191617e-38
0.098781914 -1.139745 1.3950256 1.4283812e-38
0.094157264 -1.139745 1.3950256 1.4283812e-38
0.089482263 -1.139104 1.394241 1.4467483e-38
0.08481247 -1.138463 1.3934565 1.4467483e-38
0.08019302 -1.138463 1.3934565 1.4651874e-38
0.075531028 -1.1378219 1.3926718 1.4651874e-38
0.070914187 -1.1378219 1.3926718 1.4651874e-38
0.066334702 -1.138463 1.3934565 1.474407e-38
0.061715256 -1.138463 1.3934565 1.4467483e-38
0.057127956 -1.139104 1.394241 1.4467483e-38
0.052535467 -1.139745 1.3950256 1.4283092e-38
0.047937769 -1.140386 1.3958101 1.4190896e-38
0.043334872 -1.1410271 1.3965948 1.3177465e-38
0.03874851 -1.1423091 1.398164 1.3454052e-38
0.034132607 -1.1429502 1.3989487 1.3546247e-38
0.02952804 -1.1442322 1.4005178 1.3454052e-38
0.024913073 -1.1455142 1.402087 1.3454052e-38
0.02026502 -1.1455142 1.402087 1.3637723e-38
0.015634444 -1.1467962 1.4036562 1.3729918e-38
0.010987327 -1.1474373 1.4044409 1.3822114e-38
0.006335008 -1.1480784 1.4052255 1.3453331e-38
0.0016784222 -1.1493604 1.4067945 1.3545527e-38
0.31256017 -1.2395986 1.5094254 1.8254726e-38
0.30706921 -1.2376689 1.5070755 1.8162531e-38
0.29861081 -1.2235167 1.4898428 1.8162531e-38
0.28995812 -1.208078 1.4710436 1.8254726e-38
0.2803677 -1.1881363 1.4467613 1.8254726e-38
0.2746684 -1.1842766 1.4420613 1.8254726e-38
0.26870713 -1.1791304 1.4357949 1.8162531e-38
0.25990763 -1.1611186 1.4138625 1.8162531e-38
0.25422299 -1.1566157 1.4083793 1.8346199e-38
0.24774204 -1.148253 1.3981963 1.9540776e-38
0.24160111 -1.1411769 1.3895799 1.7235886e-38
0.23658609 -1.1392471 1.38723 1.7142245e-38
0.23171768 -1.1379606 1.3856635 1.6589071e-38
0.2267313 -1.1360307 1.3833135 1.658835e-38
0.22176051 -1.1341009 1.3809637 1.6679822e-38
0.2170517 -1.1334577 1.3801804 1.631104e-38
0.21210691 -1.1315278 1.3778304 1.5666026e-38
0.20729573 -1.1302412 1.3762639 1.5112853e-38
0.20261031 -1.1295979 1.3754805 1.4651872e-38
0.19793013 -1.1289546 1.3746973 1.4836263e-38
0.19336531 -1.1289546 1.3746973 1.4836263e-38
0.18880048 -1.1289546 1.3746973 1.5020654e-38
0.18423566 -1.1289546 1.3746973 1.5389437e-38
0.17977321 -1.1295979 1.3754805 1.5666024e-38
0.17530558 -1.1302412 1.3762639 1.5573828e-38
0.17092989 -1.1315278 1.3778304 1.5573828e-38
0.16654381 -1.1328143 1.379397 1.5481632e-38
0.16214734 -1.1341009 1.3809637 1.5850415e-38
0.15765107 -1.1347442 1.381747 1.5573828e-38
0.15323639 -1.1360307 1.3833135 1.5297608e-38
0.14872713 -1.136674 1.3840969 9.3970879e-39
0.14429423 -1.1379606 1.3856635 7.5538998e-39
0.13985093 -1.1392471 1.38723 1.2072559e-38
0.13539723 -1.1405337 1.3887967 1.2808326e-38
0.13085936 -1.1411769 1.3895799 1.3545171e-38
0.12638745 -1.1424636 1.3911467 1.3821758e-38
0.12190513 -1.1437501 1.3927133 1.4006505e-38
0.11728048 -1.1437501 1.3927133 1.4006505e-38
0.1127192 -1.1443933 1.3934965 1.4283092e-38
0.10809196 -1.1443933 1.3934965 1.4099421e-38
0.10346471 -1.1443933 1.3934965 1.4191617e-38
0.098837465 -1.1443933 1.3934965 1.4283812e-38
0.094210215 -1.1443933 1.3934965 1.4283812e-38
0.089532614 -1.1437501 1.3927133 1.4283812e-38
0.084907979 -1.1437501 1.3927133 1.4191617e-38
0.080283329 -1.1437501 1.3927133 1.4652595e-38
0.075616136 -1.1431068 1.3919299 1.4836266e-38
0.071034044 -1.1437501 1.3927133 1.4836266e-38
0.066409402 -1.1437501 1.3927133 1.4836266e-38
0.061784755 -1.1437501 1.3927133 1.4651874e-38
0.057160109 -1.1437501 1.3927133 1.4651874e-38
0.052565012 -1.1443933 1.3934965 1.4375288e-38
0.047964714 -1.1450367 1.3942798 1.3729562e-38
0.043359216 -1.14568 1.3950632 1.33615e-38
0.038770255 -1.1469665 1.3966298 1.3545891e-38
0.034151748 -1.1476097 1.397413 1.3545891e-38
0.029544584 -1.1488963 1.3989797 1.3637723e-38
0.024913073 -1.1495396 1.3997629 1.3637723e-38
0.02027636 -1.1501828 1.4005462 1.3729918e-38
0.015643183 -1.1514695 1.4021128 1.3822114e-38
0.010993465 -1.1521127 1.4028962 1.3822114e-38
0.0063385447 -1.152756 1.4036795 1.3822114e-38
0.0016784222 -1.1533992 1.4044628 1.3637723e-38
0.31272236 -1.2445848 1.5077013 1.8254726e-38
0.30690959 -1.2413572 1.5037913 1.8162531e-38
0.29798284 -1.2252189 1.4842412 1.8162531e-38
0.28995812 -1.2123083 1.4686012 1.8254726e-38
0.2803677 -1.1922969 1.4443592 1.8254726e-38
0.2746684 -1.1884236 1.4396671 1.8254726e-38
0.26856053 -1.1826138 1.432629 1.8162531e-38
0.25976366 -1.164539 1.4107331 1.8162531e-38
0.25394022 -1.1593747 1.4044769 1.8438394e-38
0.24760325 -1.1516283 1.395093 1.8434429e-38
0.2418735 -1.1464641 1.388837 1.6959299e-38
0.2367197 -1.1438819 1.3857088 1.677346e-38
0.23184867 -1.1425909 1.3841449 1.677346e-38
0.22698808 -1.1412998 1.3825809 1.6681262e-38
0.22201207 -1.1393633 1.3802348 1.6496507e-38
0.21729806 -1.1387177 1.3794528 1.6127725e-38
0.21246867 -1.1374266 1.3778889 1.5666026e-38
0.20764968 -1.1361356 1.3763248 1.5020657e-38
0.20295647 -1.1354899 1.3755428 1.4744067e-38
0.19826847 -1.1348445 1.3747609 1.4836263e-38
0.19369584 -1.1348445 1.3747609 1.4836263e-38
0.18912321 -1.1348445 1.3747609 1.511285e-38
0.18465556 -1.1354899 1.3755428 1.5297241e-38
0.18008034 -1.1354899 1.3755428 1.5573828e-38
0.17560491 -1.1361356 1.3763248 1.5481632e-38
0.17112423 -1.1367811 1.3771069 1.5481632e-38
0.16673297 -1.1380723 1.3786709 1.5573828e-38
0.16233128 -1.1393633 1.3802348 1.5758219e-38
0.15782981 -1.1400087 1.3810167 1.5573828e-38
0.15340993 -1.1412998 1.3825809 1.5389807e-38
0.14897963 -1.1425909 1.3841449 7.4609825e-39
0.14445737 -1.1432364 1.3849268 9.8584346e-39
0.14000887 -1.1445274 1.3864908 1.1795972e-38
0.13554996 -1.1458185 1.388055 1.2716131e-38
0.1310069 -1.1464641 1.388837 1.3361136e-38
0.12652977 -1.1477551 1.3904009 1.3729918e-38
0.12197369 -1.1484007 1.3911829 1.3822114e-38
0.11734644 -1.1484007 1.3911829 1.3822114e-38
0.11278257 -1.1490462 1.3919649 1.4190896e-38
0.10821348 -1.1496918 1.3927469 1.4283092e-38
0.10358103 -1.1496918 1.3927469 1.4375288e-38
0.098893024 -1.1490462 1.3919649 1.4283812e-38
0.094316132 -1.1496918 1.3927469 1.4468203e-38
0.089633331 -1.1490462 1.3919649 1.4283812e-38
0.085003488 -1.1490462 1.3919649 1.4283812e-38
0.080373637 -1.1490462 1.3919649 1.474479e-38
0.075701237 -1.1484007 1.3911829 1.4928461e-38
0.071073994 -1.1484007 1.3911829 1.4836266e-38
0.066446751 -1.1484007 1.3911829 1.4836266e-38
0.061854254 -1.1490462 1.3919649 1.474407e-38
0.057224404 -1.1490462 1.3919649 1.474407e-38
0.05262411 -1.1496918 1.3927469 1.4467483e-38
0.048018608 -1.1503372 1.3935289 1.3452975e-38
0.043407906 -1.1509829 1.394311 1.33615e-38
0.038791999 -1.1516283 1.395093 1.3546247e-38
0.034190036 -1.1529194 1.396657 1.3546247e-38
0.029561125 -1.1535649 1.3974389 1.3638443e-38
0.025038544 -1.1593747 1.4044769 1.3822114e-38
0.020389762 -1.1606658 1.406041 1.3822114e-38
0.015721837 -1.1613114 1.406823 1.3822114e-38
0.011048708 -1.1619568 1.4076049 1.4098701e-38
0.0063703791 -1.1626024 1.4083869 1.4006502e-38
0.0016868471 -1.1632478 1.409169 1.3729915e-38
0.31337115 -1.251519 1.5083166 1.8255082e-38
0.30675 -1.2450411 1.5005096 1.8162887e-38
0.29766884 -1.2281988 1.4802115 1.8162887e-38
0.2901125 -1.2171863 1.4669394 1.8162887e-38
0.28188565 -1.2029352 1.449764 1.8255082e-38
0.2746684 -1.1925706 1.4372728 1.8255082e-38
0.26841393 -1.1860927 1.4294658 1.8070691e-38
0.25976366 -1.1686026 1.4083869 1.8162531e-38
0.25379881 -1.1627725 1.4013605 1.8622786e-38
0.24746446 -1.1549991 1.3919921 1.7144043e-38
0.24200968 -1.1511123 1.3873079 1.6314282e-38
0.23685329 -1.1485213 1.3841851 1.6590148e-38
0.23197965 -1.1472256 1.3826237 1.7234435e-38
0.22724485 -1.146578 1.381843 1.7141874e-38
0.22238944 -1.1452824 1.3802816 1.6312113e-38
0.21766762 -1.1446346 1.3795007 1.5851135e-38
0.21283042 -1.143339 1.3779395 1.5481635e-38
0.20812161 -1.1426911 1.3771588 1.4928461e-38
0.203418 -1.1420435 1.3763781 1.4651874e-38
0.19871959 -1.1413956 1.3755974 1.4744067e-38
0.19413656 -1.1413956 1.3755974 1.4744067e-38
0.18955353 -1.1413956 1.3755974 1.5020654e-38
0.1849705 -1.1413956 1.3755974 1.5389437e-38
0.18038748 -1.1413956 1.3755974 1.5481632e-38
0.17590423 -1.1420435 1.3763781 1.5389439e-38
0.17141576 -1.1426911 1.3771588 1.5481635e-38
0.16692212 -1.143339 1.3779395 1.5666026e-38
0.16251524 -1.1446346 1.3795007 1.5758222e-38
0.15809792 -1.1459301 1.3810623 1.5573831e-38
0.15367024 -1.1472256 1.3826237 1.446785e-38
0.14923215 -1.1485213 1.3841851 6.078048e-39
0.14470208 -1.149169 1.3849657 1.1886022e-38
0.1401668 -1.1498169 1.3857465 1.2163678e-38
0.13570268 -1.1511123 1.3873079 1.2716131e-38
0.13115442 -1.1517602 1.3880886 1.3084549e-38
0.12660092 -1.1524079 1.3888693 1.3545527e-38
0.12204225 -1.1530558 1.38965 1.3822111e-38
0.11747837 -1.1537036 1.3904307 1.3822111e-38
0.11290929 -1.1543514 1.3912114 1.4098698e-38
0.10827424 -1.1543514 1.3912114 1.4099421e-38
0.10363919 -1.1543514 1.3912114 1.4191617e-38
0.099004142 -1.1543514 1.3912114 1.4283812e-38
0.094369091 -1.1543514 1.3912114 1.4468203e-38
0.08973404 -1.1543514 1.3912114 1.4191617e-38
0.085098997 -1.1543514 1.3912114 1.4191617e-38
0.080418795 -1.1537036 1.3904307 1.474479e-38
0.075786345 -1.1537036 1.3904307 1.4836986e-38
0.071153902 -1.1537036 1.3904307 1.474479e-38
0.066558801 -1.1543514 1.3912114 1.5020657e-38
0.06192375 -1.1543514 1.3912114 1.4928461e-38
0.057320852 -1.1549991 1.3919921 1.4928461e-38
0.052683204 -1.1549991 1.3919921 1.4836266e-38
0.048072502 -1.1556468 1.3927728 1.2255155e-38
0.043456599 -1.1562947 1.3935535 1.3362222e-38
0.038857233 -1.1575903 1.3951149 1.3638443e-38
0.034228321 -1.1582381 1.3958956 1.3638443e-38
0.029726548 -1.1640681 1.4029219 1.391503e-38
0.02508037 -1.1653637 1.4044834 1.391503e-38
0.020412443 -1.1660115 1.405264 1.4006505e-38
0.015739314 -1.1666592 1.4060447 1.4006505e-38
0.011067123 -1.1679548 1.4076061 1.4006505e-38
0.0063809906 -1.1686026 1.4083869 1.4006505e-38
0.0016896554 -1.1692504 1.4091675 1.4006502e-38
0.30659041 -1.2487205 1.4972308 1.8255082e-38
0.29813981 -1.2344197 1.4800838 1.8439473e-38
0.28980371 -1.2201189 1.462937 1.8255082e-38
0.28218925 -1.2084183 1.4489077 1.8439473e-38
0.27437001 -1.1954175 1.4333197 1.8439473e-38
0.26856053 -1.1908673 1.427864 1.8162887e-38
0.25918767 -1.1700661 1.4029231 1.8531669e-38
0.25365743 -1.1661658 1.3982466 1.9174156e-38
0.24732567 -1.1583654 1.3888938 1.6682343e-38
0.24214588 -1.1557653 1.3857763 1.6405756e-38
0.23712046 -1.1538152 1.3834381 1.6590148e-38
0.23224163 -1.1525151 1.3818792 1.714224e-38
0.22750162 -1.151865 1.3810998 1.70504e-38
0.22276679 -1.151215 1.3803204 1.6497223e-38
0.21803717 -1.1505649 1.379541 1.5575267e-38
0.21319218 -1.1492649 1.3779821 1.511357e-38
0.20847556 -1.1486149 1.3772027 1.5020657e-38
0.20376413 -1.1479647 1.3764234 1.4651872e-38
0.19905794 -1.1473148 1.375644 1.4744067e-38
0.1944671 -1.1473148 1.375644 1.4744067e-38
0.18987626 -1.1473148 1.375644 1.511285e-38
0.18528543 -1.1473148 1.375644 1.5573828e-38
0.18069461 -1.1473148 1.375644 1.5850418e-38
0.17620355 -1.1479647 1.3764234 1.5481635e-38
0.17170729 -1.1486149 1.3772027 1.5389439e-38
0.16720584 -1.1492649 1.3779821 1.5573831e-38
0.16279115 -1.1505649 1.379541 1.5573831e-38
0.15836604 -1.151865 1.3810998 1.5573831e-38
0.15393054 -1.1531651 1.3826586 1.1149173e-38
0.14940049 -1.1538152 1.3834381 5.6174356e-39
0.14494678 -1.1551152 1.3849969 1.2440991e-38
0.1404037 -1.1557653 1.3857763 1.2255871e-38
0.13593179 -1.1570654 1.3873351 1.2716849e-38
0.13137572 -1.1577154 1.3881145 1.3085632e-38
0.12674326 -1.1577154 1.3881145 1.3270023e-38
0.12217937 -1.1583654 1.3888938 1.3546247e-38
0.1176103 -1.1590154 1.3896734 1.3546247e-38
0.11297265 -1.1590154 1.3896734 1.391503e-38
0.10839576 -1.1596655 1.3904526 1.4099421e-38
0.1037555 -1.1596655 1.3904526 1.4099421e-38
0.099115252 -1.1596655 1.3904526 1.4191617e-38
0.09452796 -1.1603155 1.391232 1.4283812e-38
0.089885108 -1.1603155 1.391232 1.4560399e-38
0.085194498 -1.1596655 1.3904526 1.4283812e-38
0.080554247 -1.1596655 1.3904526 1.4560399e-38
0.075914003 -1.1596655 1.3904526 1.474479e-38
0.071233802 -1.1590154 1.3896734 1.474479e-38
0.0666335 -1.1596655 1.3904526 1.5020657e-38
0.062028002 -1.1603155 1.391232 1.5020654e-38
0.057385147 -1.1603155 1.391232 1.4928459e-38
0.052771848 -1.1609656 1.3920115 1.3822831e-38
0.048153341 -1.1616156 1.3927908 1.2900878e-38
0.043529633 -1.1622657 1.3935702 1.3453696e-38
0.038900718 -1.1629156 1.3943497 1.3545891e-38
0.034419756 -1.168766 1.4013643 1.3545891e-38
0.029776176 -1.1700661 1.4029231 1.3822834e-38
0.025122192 -1.1713661 1.4044818 1.391503e-38
0.020446464 -1.1720161 1.4052613 1.4098701e-38
0.015721837 -1.1694161 1.4021437 1.4006505e-38
0.011048708 -1.1700661 1.4029231 1.4006505e-38
0.0063703791 -1.170716 1.4037025 1.4006505e-38
0.0016868471 -1.1713661 1.4044818 1.4006505e-38
0.30659041 -1.2530477 1.4947324 1.8439473e-38
0.29829684 -1.2393496 1.4783922 1.8531669e-38
0.28934053 -1.2223901 1.4581616 1.8255082e-38
0.28218925 -1.2126057 1.44649 1.8439473e-38
0.27451918 -1.2002122 1.4317062 1.8531669e-38
0.26856053 -1.194994 1.4254813 1.8255082e-38
0.25933167 -1.174773 1.4013603 1.8531669e-38
0.25379881 -1.1708592 1.3966916 1.9175591e-38
0.24732567 -1.1623795 1.3865764 1.6958933e-38
0.24228206 -1.1604226 1.3842419 1.659015e-38
0.23725405 -1.1584657 1.3819078 1.6497952e-38
0.23250361 -1.1578134 1.3811297 1.6866732e-38
0.22775839 -1.1571611 1.3803514 1.6498305e-38
0.22301836 -1.1565089 1.3795735 1.6497223e-38
0.21840674 -1.1565089 1.3795735 1.5575267e-38
0.2136745 -1.1558566 1.3787953 1.4837702e-38
0.20882951 -1.154552 1.3772391 1.5020654e-38
0.20422566 -1.154552 1.3772391 1.4651872e-38
0.19950905 -1.1538997 1.376461 1.4744067e-38
0.19490781 -1.1538997 1.376461 1.4744067e-38
0.19030657 -1.1538997 1.376461 1.5020654e-38
0.18570533 -1.1538997 1.376461 1.5758219e-38
0.18110411 -1.1538997 1.376461 1.5850418e-38
0.17660266 -1.154552 1.3772391 1.5481635e-38
0.17209598 -1.1552043 1.3780172 1.5389439e-38
0.16758412 -1.1558566 1.3787953 1.5573831e-38
0.16306707 -1.1565089 1.3795735 1.5389439e-38
0.15863416 -1.1578134 1.3811297 1.5389439e-38
0.15419087 -1.1591179 1.3826859 9.4889332e-39
0.149653 -1.1597703 1.383464 5.6167167e-39
0.14519149 -1.1610749 1.3850201 1.1980369e-38
0.1406406 -1.1617272 1.3857982 1.2072559e-38
0.13608453 -1.1623795 1.3865764 1.2901241e-38
0.13152325 -1.1630318 1.3873545 1.3177109e-38
0.12688559 -1.1630318 1.3873545 1.3269304e-38
0.1223165 -1.163684 1.3881326 1.3453696e-38
0.11774222 -1.1643363 1.3889107 1.3546247e-38
0.11309937 -1.1643363 1.3889107 1.4098701e-38
0.10851728 -1.1649886 1.3896887 1.4099421e-38
0.10392998 -1.1656408 1.3904668 1.4099421e-38
0.099281929 -1.1656408 1.3904668 1.4191617e-38
0.09463387 -1.1656408 1.3904668 1.4191617e-38
0.089985818 -1.1656408 1.3904668 1.4652595e-38
0.085337766 -1.1656408 1.3904668 1.4468203e-38
0.080644563 -1.1649886 1.3896887 1.4560399e-38
0.075999111 -1.1649886 1.3896887 1.4560399e-38
0.071393602 -1.1656408 1.3904668 1.4652595e-38
0.066745557 -1.1656408 1.3904668 1.4836986e-38
0.062132251 -1.1662931 1.3912449 1.4836983e-38
0.057481594 -1.1662931 1.3912449 1.4744788e-38
0.052860487 -1.1669455 1.3920231 1.326966e-38
0.048261128 -1.1682501 1.3935794 1.3177465e-38
0.043627016 -1.1689023 1.3943573 1.3545891e-38
0.038965952 -1.1689023 1.3943573 1.3545891e-38
0.034477185 -1.174773 1.4013603 1.3545891e-38
0.029825803 -1.1760776 1.4029164 1.3822834e-38
0.025164016 -1.1773821 1.4044727 1.3822834e-38
0.020423783 -1.174773 1.4013603 1.391503e-38
0.015748054 -1.1754252 1.4021382 1.3822834e-38
0.011073261 -1.1767299 1.4036946 1.3822834e-38
0.0063845278 -1.1773821 1.4044727 1.3638443e-38
0.0016905915 -1.1780344 1.4052508 1.3822834e-38
0.30690959 -1.2586839 1.4937876 1.8255082e-38
0.29876783 -1.2455931 1.4782517 1.8162887e-38
0.2894949 -1.227266 1.4565012 1.8162531e-38
0.28249285 -1.2181023 1.4456261 1.8255082e-38
0.27437001 -1.2037024 1.4285364 1.8439473e-38
0.26812074 -1.197157 1.4207685 1.8162887e-38
0.25933167 -1.1788299 1.399018 1.8255082e-38
0.25365743 -1.174248 1.3935803 1.9360701e-38
0.24746446 -1.1670481 1.3850356 1.5574917e-38
0.24255446 -1.1657391 1.383482 1.529833e-38
0.23752123 -1.1637754 1.3811517 1.5206131e-38
0.23289658 -1.1637754 1.3811517 1.5022819e-38
0.22801518 -1.1624663 1.3795981 1.4837349e-38
0.22339572 -1.1624663 1.3795981 1.4560043e-38
0.2186531 -1.1618117 1.3788213 1.4652239e-38
0.21403626 -1.1618117 1.3788213 1.4468203e-38
0.20930144 -1.1611571 1.3780444 1.4283812e-38
0.20468719 -1.1611571 1.3780444 1.4283812e-38
0.19996017 -1.1605027 1.3772676 1.4191617e-38
0.19534855 -1.1605027 1.3772676 1.4191617e-38
0.19073689 -1.1605027 1.3772676 1.4283092e-38
0.18612526 -1.1605027 1.3772676 1.6127005e-38
0.18151362 -1.1605027 1.3772676 1.5666024e-38
0.17700176 -1.1611571 1.3780444 1.5481632e-38
0.17238751 -1.1611571 1.3780444 1.5389437e-38
0.16786785 -1.1618117 1.3788213 1.5481632e-38
0.16343495 -1.1631207 1.3803748 1.5481632e-38
0.15890227 -1.1637754 1.3811517 1.5020657e-38
0.15445118 -1.1650845 1.3827052 8.1974741e-39
0.1499055 -1.1657391 1.383482 5.984779e-39
0.14535463 -1.1663935 1.3842589 1.299272e-38
0.1408775 -1.1677026 1.3858124 1.2809045e-38
0.13623725 -1.1677026 1.3858124 1.3269304e-38
0.13167077 -1.1683571 1.3865892 1.33615e-38
0.12709908 -1.1690117 1.3873661 1.3269304e-38
0.12245363 -1.1690117 1.3873661 1.3177465e-38
0.11787414 -1.1696663 1.3881428 1.3453331e-38
0.11322609 -1.1696663 1.3881428 1.4006505e-38
0.1086388 -1.1703207 1.3889196 1.4190896e-38
0.10398814 -1.1703207 1.3889196 1.4098701e-38
0.099337488 -1.1703207 1.3889196 1.4190896e-38
0.094739787 -1.1709752 1.3896965 1.4283092e-38
0.090086527 -1.1709752 1.3896965 1.4836986e-38
0.085481033 -1.1716299 1.3904732 1.4652595e-38
0.080780014 -1.1709752 1.3896965 1.4652595e-38
0.076169319 -1.1716299 1.3904732 1.4468203e-38
0.071513459 -1.1716299 1.3904732 1.4468203e-38
0.066894963 -1.1722845 1.3912501 1.4651874e-38
0.062236499 -1.1722845 1.3912501 1.4560399e-38
0.057610184 -1.1729389 1.3920268 1.474479e-38
0.05297868 -1.1735935 1.3928037 1.2716486e-38
0.048341963 -1.174248 1.3935803 1.3177109e-38
0.043724399 -1.1755571 1.395134 1.33615e-38
0.039052933 -1.1755571 1.395134 1.3453696e-38
0.034553759 -1.181448 1.4021252 1.3545891e-38
0.029891971 -1.182757 1.4036788 1.3638087e-38
0.025136134 -1.1801389 1.4005716 1.3914674e-38
0.020469144 -1.181448 1.4021252 1.3914674e-38
0.01578301 -1.1821026 1.4029021 1.3914674e-38
0.011097814 -1.1834116 1.4044557 1.3822834e-38
0.0063986764 -1.1840662 1.4052324 1.3822834e-38
0.0016943358 -1.1847208 1.4060092 1.3638443e-38
0.31564197 -1.2781218 1.5091233 1.8255082e-38
0.30690959 -1.2630156 1.4912868 1.8255082e-38
0.2993958 -1.2525069 1.4788787 1.8162531e-38
0.2894949 -1.2314894 1.4540628 1.8254726e-38
0.28264463 -1.2229512 1.4439814 1.8254726e-38
0.2746684 -1.2091584 1.4276959 1.8439118e-38
0.26826733 -1.2019336 1.4191653 1.8162531e-38
0.26149157 -1.1927387 1.4083083 1.8255082e-38
0.25351605 -1.1776323 1.3904718 1.9359982e-38
0.24774204 -1.1723779 1.3842678 1.5482721e-38
0.24282683 -1.1710644 1.3827169 1.529833e-38
0.237922 -1.1697508 1.3811657 1.5113939e-38
0.23315854 -1.169094 1.3803903 1.5113939e-38
0.22840032 -1.1684372 1.3796147 1.4837349e-38
0.22377308 -1.1684372 1.3796147 1.4560043e-38
0.21914583 -1.1684372 1.3796147 1.4467848e-38
0.21439801 -1.1677804 1.3788394 1.4283456e-38
0.20977338 -1.1677804 1.3788394 1.4099065e-38
0.20503333 -1.1671236 1.3780638 1.4191261e-38
0.20041129 -1.1671236 1.3780638 1.3914674e-38
0.19578925 -1.1671236 1.3780638 1.3822478e-38
0.19116721 -1.1671236 1.3780638 1.3638087e-38
0.18654516 -1.1671236 1.3780638 1.419054e-38
0.18192312 -1.1671236 1.3780638 1.45586e-38
0.17730108 -1.1671236 1.3780638 1.4927382e-38
0.17277621 -1.1677804 1.3788394 1.4835187e-38
0.16824614 -1.1684372 1.3796147 1.5480556e-38
0.16371088 -1.169094 1.3803903 1.5112853e-38
0.15917039 -1.1697508 1.3811657 1.483591e-38
0.15462472 -1.1704075 1.3819413 8.8431994e-39
0.15007384 -1.1710644 1.3827169 7.0914825e-39
0.14551775 -1.1717212 1.3834922 1.3361503e-38
0.14095648 -1.1723779 1.3842678 1.3270023e-38
0.13646635 -1.1736915 1.3858187 1.3453696e-38
0.13189207 -1.1743484 1.3865943 1.3453696e-38
0.1272414 -1.1743484 1.3865943 1.3269304e-38
0.12265932 -1.1750051 1.3873699 1.3177465e-38
0.11800607 -1.1750051 1.3873699 1.3361136e-38
0.11335281 -1.1750051 1.3873699 1.4006505e-38
0.10876032 -1.1756619 1.3881453 1.4098701e-38
0.10416262 -1.1763188 1.3889209 1.4006505e-38
0.099504165 -1.1763188 1.3889209 1.4006505e-38
0.094898656 -1.1769755 1.3896962 1.4098701e-38
0.090237595 -1.1769755 1.3896962 1.4928461e-38
0.085576542 -1.1769755 1.3896962 1.4928461e-38
0.080915481 -1.1769755 1.3896962 1.4836266e-38
0.076296978 -1.1776323 1.3904718 1.4651874e-38
0.071673267 -1.1782891 1.3912473 1.4467483e-38
0.067007005 -1.1782891 1.3912473 1.4375288e-38
0.062375497 -1.1789459 1.3920227 1.4651874e-38
0.057738781 -1.1796027 1.3927983 1.4375288e-38
0.053096868 -1.1802595 1.3935738 1.3177109e-38
0.048449751 -1.1809163 1.3943493 1.3177109e-38
0.043821778 -1.1822299 1.3959002 1.33615e-38
0.039161652 -1.1828867 1.3966758 1.3545891e-38
0.034630332 -1.1881411 1.4028798 1.3638087e-38
0.029958142 -1.1894547 1.4044309 1.3822478e-38
0.025205839 -1.1874843 1.4021043 1.3914674e-38
0.020514505 -1.1881411 1.4028798 1.4006869e-38
0.015817966 -1.1887978 1.4036553 1.4006869e-38
0.011122366 -1.1901114 1.4052063 1.3822834e-38
0.0064128246 -1.1907682 1.4059818 1.3822834e-38
0.0016990163 -1.1920818 1.4075327 1.3638443e-38
0.30643079 -1.2653701 1.4864633 1.8162891e-38
0.2998668 -1.2587796 1.4787213 1.8162891e-38
0.28918612 -1.234395 1.450076 1.8347282e-38
0.28431439 -1.234395 1.450076 1.8347282e-38
0.2746684 -1.2133055 1.4253016 1.8347282e-38
0.26885372 -1.2086921 1.4198822 1.8162891e-38
0.26163554 -1.1974883 1.4067206 1.8254726e-38
0.25365743 -1.1823301 1.3889141 1.972733e-38
0.24801962 -1.1777169 1.3834947 1.5297611e-38
0.24309921 -1.1763988 1.3819463 1.5297611e-38
0.23818918 -1.1750808 1.380398 1.5205415e-38
0.23355152 -1.1750808 1.380398 1.5113939e-38
0.22878549 -1.1744217 1.3796238 1.502174e-38
0.22415043 -1.1744217 1.3796238 1.483663e-38
0.21951538 -1.1744217 1.3796238 1.483663e-38
0.21475977 -1.1737627 1.3788495 1.4744434e-38
0.21012732 -1.1737627 1.3788495 1.4283456e-38
0.20549487 -1.1737627 1.3788495 1.4283456e-38
0.20086242 -1.1737627 1.3788495 1.4099065e-38
0.19622998 -1.1737627 1.3788495 1.4006869e-38
0.19159752 -1.1737627 1.3788495 1.3914674e-38
0.18696508 -1.1737627 1.3788495 1.4006869e-38
0.18233263 -1.1737627 1.3788495 1.4099065e-38
0.17770019 -1.1737627 1.3788495 1.419054e-38
0.17306773 -1.1737627 1.3788495 1.419054e-38
0.16852985 -1.1744217 1.3796238 1.4282736e-38
0.16398679 -1.1750808 1.380398 1.4374932e-38
0.15943849 -1.1757398 1.3811722 1.4651519e-38
0.15488502 -1.1763988 1.3819463 1.2623938e-38
0.15032636 -1.1770579 1.3827206 1.1056612e-38
0.14576246 -1.1777169 1.3834947 1.2992717e-38
0.14119337 -1.178376 1.384269 1.2992717e-38
0.13661908 -1.1790349 1.3850431 1.3177109e-38
0.13203961 -1.1796941 1.3858174 1.3177109e-38
0.12745491 -1.1803532 1.3865917 1.3177109e-38
0.12279645 -1.1803532 1.3865917 1.2993073e-38
0.11820395 -1.1810122 1.3873657 1.3177465e-38
0.11347954 -1.1803532 1.3865917 1.2808682e-38
0.10888183 -1.1810122 1.3873657 1.3084549e-38
0.10427894 -1.1816711 1.38814 1.2992353e-38
0.099615276 -1.1816711 1.38814 1.2807606e-38
0.095004566 -1.1823301 1.3889141 1.2531019e-38
0.090388663 -1.1829892 1.3896883 1.2991997e-38
0.085719809 -1.1829892 1.3896883 1.3267505e-38
0.08105094 -1.1829892 1.3896883 1.3175309e-38
0.076424636 -1.1836483 1.3904625 1.308347e-38
0.071833074 -1.1849664 1.392011 1.3360057e-38
0.067156412 -1.1849664 1.392011 1.3637367e-38
0.062549241 -1.1862845 1.3935593 1.4467127e-38
0.057899524 -1.1869435 1.3943336 1.4282736e-38
0.053244606 -1.1876025 1.3951077 1.3637367e-38
0.048584484 -1.1882616 1.3958819 1.3176388e-38
0.043919161 -1.1889207 1.3966563 1.3545171e-38
0.039270375 -1.1902388 1.3982046 1.3729562e-38
0.034572903 -1.1902388 1.3982046 1.3822478e-38
0.030024311 -1.1961702 1.4051723 1.3822478e-38
0.025261603 -1.194193 1.4028498 1.3822478e-38
0.020559866 -1.1948521 1.4036239 1.3914674e-38
0.015861662 -1.1961702 1.4051723 1.4006869e-38
0.011146919 -1.1968293 1.4059465 1.3822834e-38
0.0064269733 -1.1974883 1.4067206 1.3638443e-38
0.0017027608 -1.1988064 1.4082692 1.3638443e-38
0.30065179 -1.2663885 1.4801018 1.8070695e-38
0.28934053 -1.2392753 1.4484129 1.8070695e-38
0.28476977 -1.2405978 1.4499588 1.8162891e-38
0.27496678 -1.218775 1.424453 1.8162891e-38
0.26914689 -1.2141459 1.4190428 1.8070695e-38
0.26177955 -1.2022425 1.4051306 1.8162531e-38
0.25408161 -1.1883552 1.3888998 2.0003554e-38
0.24815843 -1.1824036 1.3819436 1.5297614e-38
0.24323541 -1.1810809 1.3803979 1.5113223e-38
0.23845635 -1.1804197 1.379625 1.5205418e-38
0.23381349 -1.1804197 1.379625 1.511322e-38
0.22904226 -1.1797583 1.378852 1.5113217e-38
0.22452779 -1.1804197 1.379625 1.5113217e-38
0.21988495 -1.1804197 1.379625 1.5113217e-38
0.2152421 -1.1804197 1.379625 1.4928826e-38
0.21059924 -1.1804197 1.379625 1.4560043e-38
0.20595638 -1.1804197 1.379625 1.4652595e-38
0.20131354 -1.1804197 1.379625 1.4652595e-38
0.1966707 -1.1804197 1.379625 1.4560399e-38
0.19202784 -1.1804197 1.379625 1.4652595e-38
0.18738499 -1.1804197 1.379625 1.4468203e-38
0.18263976 -1.1797583 1.378852 1.4283812e-38
0.17809929 -1.1804197 1.379625 1.4468203e-38
0.17345643 -1.1804197 1.379625 1.4468203e-38
0.16890816 -1.1810809 1.3803979 1.4468203e-38
0.16426271 -1.1810809 1.3803979 1.4283812e-38
0.15970661 -1.1817422 1.3811707 1.4467483e-38
0.15514533 -1.1824036 1.3819436 1.0778576e-38
0.15049469 -1.1824036 1.3819436 1.3728836e-38
0.1459256 -1.1830648 1.3827165 1.3546244e-38
0.14135131 -1.1837261 1.3834895 1.3822831e-38
0.13677183 -1.1843874 1.3842624 1.3638443e-38
0.13211337 -1.1843874 1.3842624 1.3362575e-38
0.12752606 -1.1850487 1.3850353 1.3362575e-38
0.12293357 -1.1857101 1.3858081 1.3270379e-38
0.11833587 -1.1863713 1.3865809 1.3362575e-38
0.11366962 -1.1863713 1.3865809 1.3454052e-38
0.10906412 -1.1870326 1.3873539 1.3454052e-38
0.10439525 -1.1870326 1.3873539 1.3454052e-38
0.099781953 -1.187694 1.3881269 1.3361856e-38
0.095163442 -1.1883552 1.3888998 1.3361856e-38
0.090489373 -1.1883552 1.3888998 1.4006149e-38
0.085863069 -1.1890166 1.3896726 1.3637367e-38
0.081186406 -1.1890166 1.3896726 1.3637367e-38
0.076552294 -1.1896778 1.3904456 1.3637367e-38
0.071912974 -1.1903391 1.3912184 1.3269304e-38
0.067268468 -1.1910005 1.3919914 1.2992717e-38
0.062653497 -1.192323 1.393537 1.2900525e-38
0.057995971 -1.1929843 1.3943101 1.1609786e-38
0.053362798 -1.194307 1.3958559 1.4282739e-38
0.048692271 -1.1949682 1.3966286 1.4652242e-38
0.044016544 -1.1956296 1.3974016 1.3915395e-38
0.039357353 -1.1969521 1.3989474 1.3362222e-38
0.034649476 -1.1969521 1.3989474 1.1518309e-38
0.030090481 -1.2029039 1.4059036 1.0226851e-38
0.025331311 -1.2015812 1.4043577 9.6736776e-39
0.020616567 -1.2022425 1.4051306 9.9502645e-39
0.01589662 -1.2029039 1.4059036 1.0319047e-38
0.011171471 -1.2035651 1.4066764 1.1978568e-38
0.0064411219 -1.2042265 1.4074494 1.2716133e-38
0.0017065051 -1.205549 1.408995 1.3269304e-38
0.30237877 -1.2780013 1.486099 1.79785e-38
0.29582521 -1.2713658 1.4783829 1.79785e-38
0.28507337 -1.2461509 1.4490622 1.8070695e-38
0.27511597 -1.22359 1.4228278 1.8070695e-38
0.26958668 -1.2202723 1.4189698 1.79785e-38
0.26177955 -1.2063377 1.4027663 1.8070691e-38
0.25408161 -1.1924031 1.3865627 2.0003554e-38
0.24857479 -1.1884218 1.3819332 1.5297614e-38
0.24364397 -1.1870947 1.3803899 1.5113223e-38
0.23885712 -1.1864312 1.3796183 1.5205415e-38
0.23407546 -1.1857675 1.3788466 1.5113217e-38
0.22942743 -1.1857675 1.3788466 1.5113217e-38
0.22477937 -1.1857675 1.3788466 1.5205413e-38
0.2202545 -1.1864312 1.3796183 1.5205413e-38
0.21560386 -1.1864312 1.3796183 1.4928826e-38
0.21107118 -1.1870947 1.3803899 1.4652595e-38
0.20630254 -1.1864312 1.3796183 1.4836986e-38
0.20165189 -1.1864312 1.3796183 1.474479e-38
0.19700123 -1.1864312 1.3796183 1.474479e-38
0.19235057 -1.1864312 1.3796183 1.474479e-38
0.18780489 -1.1870947 1.3803899 1.4560399e-38
0.18304928 -1.1864312 1.3796183 1.4560399e-38
0.17839862 -1.1864312 1.3796183 1.4560399e-38
0.17374796 -1.1864312 1.3796183 1.4468203e-38
0.16919187 -1.1870947 1.3803899 1.4468203e-38
0.16453862 -1.1870947 1.3803899 1.4560399e-38
0.15997472 -1.1877582 1.3811616 1.4467483e-38
0.15531887 -1.1877582 1.3811616 1.0686381e-38
0.15074719 -1.1884218 1.3819332 1.3913228e-38
0.1461703 -1.1890852 1.3827047 1.3822111e-38
0.14158821 -1.1897489 1.3834763 1.4099418e-38
0.13692455 -1.1897489 1.3834763 1.4007223e-38
0.13233465 -1.1904124 1.3842478 1.363844e-38
0.12773955 -1.191076 1.3850194 1.3546244e-38
0.12307069 -1.191076 1.3850194 1.3546244e-38
0.1184678 -1.1917396 1.3857911 1.3546247e-38
0.1138597 -1.1924031 1.3865627 1.3638443e-38
0.10918564 -1.1924031 1.3865627 1.3546247e-38
0.10456973 -1.1930666 1.3873343 1.3638443e-38
0.09994863 -1.1937302 1.388106 1.3546247e-38
0.09526936 -1.1937302 1.388106 1.3454052e-38
0.090640441 -1.1943938 1.3888775 1.4098701e-38
0.086006336 -1.1950573 1.3896492 1.4098701e-38
0.081367016 -1.1957208 1.3904207 1.4006505e-38
0.076679952 -1.1957208 1.3904207 1.3822114e-38
0.072072789 -1.1970479 1.391964 1.3361856e-38
0.067417867 -1.1977115 1.3927355 1.33615e-38
0.062792487 -1.1990385 1.3942786 1.3177109e-38
0.058124565 -1.1997021 1.3950503 1.1056609e-38
0.053480987 -1.2010293 1.3965935 1.3729565e-38
0.048800059 -1.2016928 1.3973651 1.4652242e-38
0.044113923 -1.2023563 1.3981366 1.4837352e-38
0.039444331 -1.2036835 1.3996799 1.5113939e-38
0.034745194 -1.204347 1.4004514 1.4745156e-38
0.030024311 -1.204347 1.4004514 1.38232e-38
0.025373135 -1.2076647 1.4043095 1.3732083e-38
0.020650588 -1.2083284 1.405081 1.3271102e-38
0.015922839 -1.2089919 1.4058527 1.2349146e-38
0.011189886 -1.2096554 1.4066242 1.1149524e-38
0.0064552701 -1.2109826 1.4081675 1.0780741e-38
0.0017093134 -1.2116461 1.4089391 1.0688546e-38
0.30316377 -1.2856688 1.4874456 1.79785e-38
0.2947444 -1.271021 1.470499 1.79785e-38
0.28537697 -1.2517128 1.4481604 1.8070695e-38
0.27899507 -1.2450547 1.4404575 1.8070695e-38
0.27002648 -1.2264122 1.4188892 1.8162531e-38
0.26206753 -1.2117645 1.4019425 1.8162887e-38
0.2543644 -1.1977825 1.3857663 1.9632972e-38
0.24899116 -1.1944535 1.3819147 1.5481285e-38
0.24405253 -1.1931219 1.3803742 1.5296894e-38
0.23925789 -1.1924561 1.379604 1.5296891e-38
0.23446843 -1.1917903 1.3788337 1.4928826e-38
0.22981259 -1.1917903 1.3788337 1.4928826e-38
0.22515672 -1.1917903 1.3788337 1.5113217e-38
0.22050087 -1.1917903 1.3788337 1.5113217e-38
0.21584502 -1.1917903 1.3788337 1.483663e-38
0.21118917 -1.1917903 1.3788337 1.474479e-38
0.20676406 -1.1931219 1.3803742 1.4836986e-38
0.202103 -1.1931219 1.3803742 1.4836986e-38
0.19744195 -1.1931219 1.3803742 1.4929182e-38
0.19278088 -1.1931219 1.3803742 1.4836986e-38
0.18811983 -1.1931219 1.3803742 1.4652595e-38
0.18345878 -1.1931219 1.3803742 1.4652595e-38
0.17879772 -1.1931219 1.3803742 1.4652595e-38
0.17413665 -1.1931219 1.3803742 1.4468203e-38
0.16957018 -1.1937877 1.3811445 1.4560399e-38
0.16490652 -1.1937877 1.3811445 1.4560399e-38
0.16024284 -1.1937877 1.3811445 1.4652595e-38
0.15566595 -1.1944535 1.3819147 1.1609063e-38
0.1509997 -1.1944535 1.3819147 1.3729562e-38
0.14641501 -1.1951194 1.3826851 1.4098345e-38
0.14174615 -1.1951194 1.3826851 1.4375288e-38
0.13715366 -1.1957852 1.3834553 1.4191617e-38
0.13255595 -1.1964509 1.3842257 1.391503e-38
0.12788188 -1.1964509 1.3842257 1.3822834e-38
0.12327639 -1.1971167 1.3849959 1.391503e-38
0.11866569 -1.1977825 1.3857663 1.3822834e-38
0.11404978 -1.1984484 1.3865366 1.4098701e-38
0.10936791 -1.1984484 1.3865366 1.4098701e-38
0.1047442 -1.1991142 1.3873069 1.3822114e-38
0.10005974 -1.1991142 1.3873069 1.3822114e-38
0.095428228 -1.19978 1.388077 1.3822114e-38
0.090791509 -1.2004458 1.3888474 1.4098701e-38
0.086149603 -1.2011116 1.3896178 1.4098701e-38
0.081502475 -1.2017773 1.390388 1.4098701e-38
0.076850168 -1.2024432 1.3911583 1.4006505e-38
0.072192639 -1.203109 1.3919286 1.3729918e-38
0.067567274 -1.2044406 1.3934692 1.326966e-38
0.062896736 -1.2051064 1.3942394 1.3453696e-38
0.058253154 -1.2064379 1.3957801 9.7658704e-39
0.053599179 -1.2077696 1.3973207 1.3269307e-38
0.048907842 -1.2084354 1.398091 1.4374932e-38
0.044211306 -1.2091012 1.3988613 1.5481635e-38
0.039509561 -1.209767 1.3996315 1.5666026e-38
0.034802623 -1.2104329 1.4004019 1.5112853e-38
0.030073937 -1.2104329 1.4004019 1.4836266e-38
0.025414959 -1.2137618 1.4042534 1.4836266e-38
0.020684609 -1.2144277 1.4050237 1.4191617e-38
0.015949056 -1.2150935 1.405794 1.3638443e-38
0.011208301 -1.2157593 1.4065644 1.2901594e-38
0.0064658816 -1.2170908 1.4081049 1.2902673e-38
0.0017121218 -1.2177567 1.4088752 1.2994868e-38
0.30410576 -1.2940269 1.4895482 1.79785e-38
0.29520762 -1.2773254 1.4703233 1.79785e-38
0.28689492 -1.2626281 1.4534055 1.79785e-38
0.27899507 -1.249267 1.4380255 1.79785e-38
0.27061284 -1.2332336 1.4195695 1.7978139e-38
0.26206753 -1.2158641 1.3995756 1.8070691e-38
0.2546472 -1.203171 1.3849646 1.8434429e-38
0.24940753 -1.2004988 1.3818886 1.5389809e-38
0.2444611 -1.1991627 1.3803506 1.5205418e-38
0.23979224 -1.1991627 1.3803506 1.5296891e-38
0.23499237 -1.1984947 1.3795816 1.4928826e-38
0.23019776 -1.1978266 1.3788127 1.4928826e-38
0.22553408 -1.1978266 1.3788127 1.5113217e-38
0.22087042 -1.1978266 1.3788127 1.5113217e-38
0.21620677 -1.1978266 1.3788127 1.483663e-38
0.21154311 -1.1978266 1.3788127 1.4744434e-38
0.20711021 -1.1991627 1.3803506 1.4836986e-38
0.20244135 -1.1991627 1.3803506 1.4836986e-38
0.19777249 -1.1991627 1.3803506 1.4929182e-38
0.19310361 -1.1991627 1.3803506 1.4836986e-38
0.18843476 -1.1991627 1.3803506 1.474479e-38
0.18386829 -1.1998308 1.3811196 1.4652595e-38
0.17919682 -1.1998308 1.3811196 1.4652595e-38
0.17452535 -1.1998308 1.3811196 1.4560399e-38
0.16994846 -1.2004988 1.3818886 1.4560399e-38
0.1652744 -1.2004988 1.3818886 1.4468203e-38
0.16060032 -1.2004988 1.3818886 1.4744434e-38
0.15592627 -1.2004988 1.3818886 1.2991997e-38
0.15125221 -1.2004988 1.3818886 1.4098345e-38
0.14665972 -1.2011669 1.3826576 1.4467127e-38
0.14206201 -1.2018349 1.3834267 1.4651519e-38
0.13738275 -1.2018349 1.3834267 1.4468203e-38
0.13277724 -1.202503 1.3841956 1.4007225e-38
0.12809537 -1.202503 1.3841956 1.4007225e-38
0.12348208 -1.203171 1.3849646 1.4007225e-38
0.11886357 -1.2038391 1.3857336 1.391503e-38
0.1141765 -1.2038391 1.3857336 1.4099421e-38
0.10955019 -1.2045071 1.3865025 1.4098701e-38
0.10491869 -1.2051753 1.3872716 1.4098701e-38
0.10028197 -1.2058432 1.3880407 1.4006505e-38
0.095640056 -1.2065114 1.3888097 1.4006505e-38
0.090942577 -1.2065114 1.3888097 1.4190896e-38
0.086292863 -1.2071793 1.3895786 1.4190896e-38
0.081637941 -1.2078475 1.3903476 1.4098701e-38
0.076977827 -1.2085155 1.3911166 1.4006505e-38
0.072352447 -1.2098516 1.3926547 1.3729918e-38
0.067679323 -1.2105196 1.3934236 1.3453331e-38
0.063035741 -1.2118559 1.3949616 1.3361136e-38
0.058381751 -1.213192 1.3964995 1.0318324e-38
0.053687818 -1.2138599 1.3972685 1.3177109e-38
0.048988681 -1.214528 1.3980377 1.4191261e-38
0.044284344 -1.2151961 1.3988067 1.5297964e-38
0.039596543 -1.2165322 1.4003446 1.5574551e-38
0.034879196 -1.2172003 1.4011136 1.5112853e-38
0.030123565 -1.2165322 1.4003446 1.4928461e-38
0.025414959 -1.2178683 1.4018825 1.4836266e-38
0.020673269 -1.2178683 1.4018825 1.4007225e-38
0.015949056 -1.2192044 1.4034206 1.3546247e-38
0.011202162 -1.2192044 1.4034206 1.2993073e-38
0.0064729559 -1.2225447 1.4072654 1.3178181e-38
0.0017149301 -1.2238809 1.4088035 1.3087064e-38
0.30457675 -1.300401 1.4893323 1.7886304e-38
0.29536203 -1.2823026 1.4686046 1.7886304e-38
0.28735033 -1.2688963 1.4532505 1.7794108e-38
0.27884585 -1.2528089 1.4348258 1.7794108e-38
0.27310494 -1.248787 1.4302195 1.7885944e-38
0.26249951 -1.2219747 1.3995117 1.8070691e-38
0.25818199 -1.2239857 1.4018148 1.668199e-38
0.24982391 -1.2065575 1.3818547 1.5298333e-38
0.24500588 -1.2058873 1.3810871 1.5206137e-38
0.24019301 -1.205217 1.3803194 1.5205413e-38
0.23538534 -1.2045467 1.3795516 1.4928826e-38
0.2307113 -1.2045467 1.3795516 1.483663e-38
0.22603722 -1.2045467 1.3795516 1.4928826e-38
0.22123998 -1.2038764 1.3787839 1.4928826e-38
0.21656853 -1.2038764 1.3787839 1.4744434e-38
0.21189706 -1.2038764 1.3787839 1.4652595e-38
0.20722559 -1.2038764 1.3787839 1.474479e-38
0.20289248 -1.2058873 1.3810871 1.4836986e-38
0.19821322 -1.2058873 1.3810871 1.4836986e-38
0.19353394 -1.2058873 1.3810871 1.474479e-38
0.18885468 -1.2058873 1.3810871 1.474479e-38
0.18427779 -1.2065575 1.3818547 1.474479e-38
0.17959592 -1.2065575 1.3818547 1.4560399e-38
0.17491405 -1.2065575 1.3818547 1.4560399e-38
0.17032675 -1.2072279 1.3826224 1.4652595e-38
0.16564229 -1.2072279 1.3826224 1.4560399e-38
0.16095781 -1.2072279 1.3826224 1.4652239e-38
0.15627335 -1.2072279 1.3826224 1.4282736e-38
0.15158889 -1.2072279 1.3826224 1.4651519e-38
0.14698599 -1.2078981 1.3833899 1.483591e-38
0.14237788 -1.2085686 1.3841578 1.4743714e-38
0.13768822 -1.2085686 1.3841578 1.4743714e-38
0.13299854 -1.2085686 1.3841578 1.4651874e-38
0.12838003 -1.2092389 1.3849256 1.4467483e-38
0.12368777 -1.2092389 1.3849256 1.4375285e-38
0.11906146 -1.2099091 1.3856932 1.4375285e-38
0.11442995 -1.2105794 1.3864609 1.4191614e-38
0.10979323 -1.2112497 1.3872285 1.4283089e-38
0.10515132 -1.21192 1.3879962 1.4283089e-38
0.10044865 -1.21192 1.3879962 1.4098698e-38
0.095798925 -1.2125905 1.388764 1.3915027e-38
0.091093644 -1.2125905 1.388764 1.391503e-38
0.08643613 -1.2132607 1.3895316 1.4099421e-38
0.0817734 -1.213931 1.3902994 1.391503e-38
0.077148035 -1.2152716 1.3918347 1.3822114e-38
0.072472304 -1.2159419 1.3926024 1.3729918e-38
0.067828722 -1.2172825 1.3941379 1.3637723e-38
0.063139983 -1.2179528 1.3949054 1.3545527e-38
0.058478199 -1.2192935 1.396441 1.0872218e-38
0.053776462 -1.2199638 1.3972087 1.2992717e-38
0.04906952 -1.2206341 1.3979764 1.4191261e-38
0.044381723 -1.2219747 1.3995117 1.5297964e-38
0.039661776 -1.222645 1.4002794 1.539016e-38
0.034936626 -1.2233152 1.4010471 1.5112853e-38
0.030206276 -1.2239857 1.4018148 1.4836266e-38
0.025470724 -1.224656 1.4025826 1.4467483e-38
0.02072997 -1.2253263 1.4033502 1.3729918e-38
0.015975272 -1.2253263 1.4033502 1.3545527e-38
0.011232853 -1.2266668 1.4048855 1.2993073e-38
0.0064764931 -1.2273371 1.4056532 1.3269657e-38
0.001713994 -1.2273371 1.4056532 1.3454768e-38
0.30520475 -1.3074613 1.4898748 1.79785e-38
0.29582521 -1.2886294 1.4684157 1.8070691e-38
0.28750211 -1.273833 1.451555 1.7978855e-38
0.27899507 -1.2576916 1.4331616 1.7978855e-38
0.27354473 -1.2550013 1.4300959 1.788666e-38
0.26437142 -1.2348244 1.407104 1.8254e-38
0.25690943 -1.2220458 1.3925424 1.5207216e-38
0.25037909 -1.2133025 1.3825794 1.5298333e-38
0.24541444 -1.2119573 1.3810465 1.5113941e-38
0.24072735 -1.2119573 1.3810465 1.5113939e-38
0.2359093 -1.2112848 1.3802801 1.5298327e-38
0.23122485 -1.2112848 1.3802801 1.5297608e-38
0.22603722 -1.2085946 1.3772146 1.4928826e-38
0.22123998 -1.207922 1.3764482 1.483663e-38
0.21644793 -1.2072494 1.3756818 1.4744434e-38
0.21177907 -1.2072494 1.3756818 1.4744434e-38
0.20711021 -1.2072494 1.3756818 1.4560043e-38
0.20300525 -1.2106122 1.3795137 1.4560043e-38
0.19854374 -1.2119573 1.3810465 1.4652239e-38
0.19396424 -1.2126299 1.3818129 1.4652239e-38
0.18927458 -1.2126299 1.3818129 1.4652239e-38
0.1846873 -1.2133025 1.3825794 1.474479e-38
0.18009479 -1.213975 1.3833457 1.4652595e-38
0.17539991 -1.213975 1.3833457 1.474479e-38
0.17079963 -1.2146475 1.3841121 1.4652595e-38
0.16610216 -1.2146475 1.3841121 1.4652595e-38
0.16140467 -1.2146475 1.3841121 1.2164032e-38
0.15670721 -1.2146475 1.3841121 1.419054e-38
0.15192556 -1.213975 1.3833457 1.4743714e-38
0.14731227 -1.2146475 1.3841121 1.483591e-38
0.14269374 -1.2153201 1.3848785 1.4560043e-38
0.13791731 -1.2146475 1.3841121 1.4652239e-38
0.1332936 -1.2153201 1.3848785 1.4468203e-38
0.12866469 -1.2159927 1.3856449 1.4468203e-38
0.12396201 -1.2159927 1.3856449 1.4468201e-38
0.11925934 -1.2159927 1.3856449 1.4468201e-38
0.11462004 -1.2166653 1.3864113 1.4191614e-38
0.10997552 -1.2173378 1.3871777 1.446748e-38
0.1053258 -1.2180104 1.3879442 1.446748e-38
0.10067087 -1.218683 1.3887105 1.4191614e-38
0.096010752 -1.2193556 1.3894769 1.4007223e-38
0.091295071 -1.2193556 1.3894769 1.4191617e-38
0.086627148 -1.2200282 1.3902433 1.4191617e-38
0.081954017 -1.2207006 1.3910097 1.4007225e-38
0.077275693 -1.2213732 1.3917761 1.3822834e-38
0.072592154 -1.2220458 1.3925424 1.3822834e-38
0.067940779 -1.2233909 1.3940754 1.3638443e-38
0.063244238 -1.2240634 1.3948417 1.3546247e-38
0.058574643 -1.2254086 1.3963745 1.1333196e-38
0.053865105 -1.2260811 1.3971409 1.3823197e-38
0.049150363 -1.2267537 1.3979073 1.4652239e-38
0.044430412 -1.2274263 1.3986737 1.5297608e-38
0.03972701 -1.2287714 1.4002066 1.5297608e-38
0.034974914 -1.2287714 1.4002066 1.483663e-38
0.03023936 -1.229444 1.4009728 1.4191617e-38
0.025498606 -1.2301166 1.4017392 1.391503e-38
0.02075265 -1.2307891 1.4025056 1.326966e-38
0.016001491 -1.2314616 1.403272 1.2993073e-38
0.011245131 -1.2321342 1.4040384 1.2900878e-38
0.0064835674 -1.2328067 1.4048048 1.326966e-38
0.0017168022 -1.2334794 1.4055712 1.3361856e-38
0.30583274 -1.3145394 1.490407 1.8070695e-38
0.296134 -1.294295 1.4674541 1.7978495e-38
0.28780571 -1.2794491 1.4506221 1.788666e-38
0.27899507 -1.2619039 1.4307296 1.788666e-38
0.27383789 -1.2605542 1.4291993 1.7794464e-38
0.26393944 -1.2369357 1.402421 1.8254e-38
0.25690943 -1.2261386 1.3901794 1.5022469e-38
0.25107303 -1.2207402 1.3840587 1.5206137e-38
0.24609539 -1.2193905 1.3825284 1.5113941e-38
0.24112813 -1.2180409 1.3809984 1.5205415e-38
0.23604028 -1.2160164 1.3787029 1.5482002e-38
0.23135322 -1.2160164 1.3787029 1.5389804e-38
0.22654037 -1.2153417 1.3779379 1.5205413e-38
0.22160953 -1.2139921 1.3764077 1.5113217e-38
0.21693029 -1.2139921 1.3764077 1.483663e-38
0.21213302 -1.2133172 1.3756427 1.4744434e-38
0.20745635 -1.2133172 1.3756427 1.4560043e-38
0.20289248 -1.2139921 1.3764077 1.4560043e-38
0.19898447 -1.2187158 1.3817635 1.4560043e-38
0.19428699 -1.2187158 1.3817635 1.4652239e-38
0.18969449 -1.2193905 1.3825284 1.4652239e-38
0.1850968 -1.2200654 1.3832936 1.474479e-38
0.18049391 -1.2207402 1.3840587 1.4652595e-38
0.17588578 -1.2214149 1.3848237 1.474479e-38
0.17127249 -1.2220898 1.3855889 1.4652595e-38
0.16656202 -1.2220898 1.3855889 1.4560399e-38
0.16185153 -1.2220898 1.3855889 1.0688183e-38
0.15714106 -1.2220898 1.3855889 1.419054e-38
0.1523464 -1.2214149 1.3848237 1.4743714e-38
0.14763853 -1.2214149 1.3848237 1.483591e-38
0.14300962 -1.2220898 1.3855889 1.4560043e-38
0.13829914 -1.2220898 1.3855889 1.4652239e-38
0.13358867 -1.2220898 1.3855889 1.4468203e-38
0.12887818 -1.2220898 1.3855889 1.4468203e-38
0.12423626 -1.2227646 1.386354 1.4560399e-38
0.11952319 -1.2227646 1.386354 1.4560396e-38
0.11487348 -1.2234395 1.3871191 1.4283809e-38
0.11021855 -1.2241143 1.3878841 1.4283809e-38
0.10555843 -1.224789 1.3886492 1.4283809e-38
0.10089311 -1.2254639 1.3894143 1.4191614e-38
0.096222579 -1.2261386 1.3901794 1.4099418e-38
0.09149649 -1.2261386 1.3901794 1.4468201e-38
0.086818166 -1.2268136 1.3909446 1.4283812e-38
0.082134634 -1.2274883 1.3917097 1.4283812e-38
0.077445902 -1.2281631 1.3924748 1.3822834e-38
0.072751962 -1.228838 1.3932399 1.3822834e-38
0.068090178 -1.2301875 1.39477 1.3638443e-38
0.063348487 -1.2301875 1.39477 1.2900878e-38
0.058671087 -1.2315371 1.3963002 1.1425395e-38
0.053953748 -1.2322121 1.3970654 1.3823197e-38
0.049231201 -1.2328868 1.3978305 1.483663e-38
0.04450345 -1.2335616 1.3985955 1.5297608e-38
0.039770495 -1.2342365 1.3993607 1.5297608e-38
0.035032343 -1.2349112 1.4001256 1.4744434e-38
0.030272445 -1.2349112 1.4001256 1.4007588e-38
0.02552649 -1.2355862 1.4008907 1.354661e-38
0.020775331 -1.2362609 1.4016559 1.2901241e-38
0.016018968 -1.2369357 1.402421 1.2716849e-38
